ply
format ascii 1.0
element vertex 1256
property float x
property float y
property float z
property uchar red
property uchar green
property uchar blue
end_header
-84.2259 -67.1015 45.5323  255 255 255
-0.646357 -39.9082 37.7527  255 255 255
27.8797 -35.139 23.6303  255 255 255
11.2143 -37.3078 36.4942  255 255 255
-85.441 -68.2875 46.8928  255 255 255
-38.6761 -56.3155 32.7162  255 255 255
-78.9608 -67.2939 45.6803  255 255 255
-34.0011 -55.5641 31.7676  255 255 255
7.55642 -39.9097 36.5245  255 255 255
62.5168 -33.2356 4.47051  255 255 255
8.18467 -42.5798 34.1078  255 255 255
8.70081 -42.8732 34.0556  255 255 255
-10.1813 -48.1697 37.6691  255 255 255
-31.8108 -57.3564 34.5945  255 255 255
-29.3198 -57.7734 34.8173  255 255 255
-31.1438 -58.3497 35.3786  255 255 255
39.2508 -41.391 16.328  255 255 255
-76.143 -70.1961 49.5411  255 255 255
-25.5443 -58.5964 35.791  255 255 255
-41.6901 -65.5824 43.8292  255 255 255
67.3968 -41.4123 14.8885  255 255 255
68.0167 -42.8805 17.8247  255 255 255
-39.4116 -68.8546 48.6183  255 255 255
51.6143 -48.2857 24.6198  255 255 255
58.3322 -47.1632 23.1934  255 255 255
67.9136 -45.4255 21.5461  255 255 255
62.7373 -46.9527 23.4939  255 255 255
-13.7351 -65.0773 44.7431  255 255 255
37.6691 92.0769 -85.9963  255 255 255
30.1957 88.5891 -83.9217  255 255 255
21.5397 85.3735 -80.8429  255 255 255
21.5464 85.3803 -80.8766  255 255 255
20.8363 84.692 -80.8778  255 255 255
64.736 100.308 -97.6024  255 255 255
24.1235 85.6976 -82.231  255 255 255
-123.467 52.8692 -88.1388  255 255 255
28.0259 86.8683 -84.2731  255 255 255
-4.21828 74.3476 -72.2004  255 255 255
-188.449 39.6067 -94.3048  255 255 255
1.08441 73.7576 -75.8679  255 255 255
27.5067 83.3025 -86.3296  255 255 255
37.1928 86.0466 -90.2991  255 255 255
37.191 86.0478 -90.2921  255 255 255
-21.0876 63.1691 -68.9773  255 255 255
55.8462 89.0833 -99.7575  255 255 255
29.7872 79.3956 -90.5242  255 255 255
69.3081 92.6883 -104.715  255 255 255
-54.4975 49.1422 -59.6246  255 255 255
50.4053 84.9913 -99.0557  255 255 255
36.1203 79.9544 -94.9673  255 255 255
55.0336 86.3479 -101.252  255 255 255
-48.8213 47.9981 -62.6479  255 255 255
-75.2314 38.8096 -51.973  255 255 255
-51.1588 45.9222 -61.8025  255 255 255
47.4652 80.5592 -101.523  255 255 255
-9.86526 56.8299 -81.359  255 255 255
-5.53233 57.8873 -83.2359  255 255 255
46.4684 74.541 -104.104  255 255 255
-133.941 1.06011 18.7154  255 255 255
-6.16259 52.9301 -87.1464  255 255 255
14.7762 59.521 -95.319  255 255 255
42.5067 69.0598 -105.064  255 255 255
31.5844 64.8186 -101.457  255 255 255
14.7381 58.2958 -96.1997  255 255 255
-40.301 38.3498 -75.833  255 255 255
60.569 72.3793 -114.08  255 255 255
-159.235 4.75878 -49.137  255 255 255
42.5838 66.067 -107.641  255 255 255
16.2056 56.829 -98.1454  255 255 255
53.7043 70.8094 -117.498  255 255 255
45.5021 66.5083 -109.481  255 255 255
45.5805 66.5652 -109.771  255 255 255
-27.5393 40.9339 -81.6937  255 255 255
9.49587 53.3038 -96.8626  255 255 255
-36.6706 36.9438 -79.9392  255 255 255
31.6255 59.6211 -106.555  255 255 255
-154.521 1.6453 -44.6444  255 255 255
44.3325 63.3752 -111.025  255 255 255
63.5327 69.4387 -118.582  255 255 255
63.5774 69.4886 -118.6  255 255 255
70.1444 70.7567 -121.812  255 255 255
-152.15 0.643248 -43.8323  255 255 255
43.7166 61.5836 -111.259  255 255 255
-106.429 12.4985 -57.7824  255 255 255
11.1067 46.8351 -96.3349  255 255 255
-111.404 7.37863 -51.2964  255 255 255
-148.528 -3.96361 -37.531  255 255 255
-31.3609 26.3136 -72.6036  255 255 255
-73.2121 13.034 -57.8762  255 255 255
22.606 41.0523 -89.7582  255 255 255
22.6149 41.0092 -89.7633  255 255 255
25.392 42.1555 -91.1304  255 255 255
12.4907 37.1451 -85.2709  255 255 255
18.4159 35.4842 -83.4693  255 255 255
-39.3311 16.4596 -60.1281  255 255 255
-74.1893 4.05547 -46.5249  255 255 255
-79.7053 1.79763 -42.8484  255 255 255
-89.3964 -1.50302 -39.8911  255 255 255
-71.3065 3.30991 -45.2529  255 255 255
-106.812 -7.4838 -32.6116  255 255 255
7.35128 25.9415 -70.2005  255 255 255
-70.4383 -0.515413 -39.3359  255 255 255
-71.3737 -0.953613 -39.3784  255 255 255
5.12307 21.7557 -65.939  255 255 255
8.18726 21.819 -65.9423  255 255 255
7.39404 21.0322 -64.888  255 255 255
13.8732 23.0752 -67.0984  255 255 255
-25.3987 10.5115 -52.3041  255 255 255
10.7911 21.1129 -65.042  255 255 255
10.8066 21.1194 -64.8922  255 255 255
14.0782 22.3422 -68.9405  255 255 255
5.22499 18.9897 -61.8567  255 255 255
35.7124 25.3223 -68.9276  255 255 255
29.6985 22.8207 -66.3389  255 255 255
59.9054 29.9492 -40.1656  255 255 255
28.8085 20.5371 -64.0755  255 255 255
-38.8204 -0.337456 -38.9025  255 255 255
27.9117 19.6501 -65.3784  255 255 255
-91.5809 -16.6623 -20.1144  255 255 255
-46.4945 -6.08316 -31.3757  255 255 255
-13.5285 -1.33082 32.133  255 255 255
36.1083 11.1032 -50.6215  255 255 255
10.6456 3.87039 25.81  255 255 255
35.5785 7.40802 -44.3562  255 255 255
56.9873 14.6586 -6.27533  255 255 255
-13.7618 -8.55758 36.2932  255 255 255
15.6104 -2.33943 28.4007  255 255 255
15.6174 -2.32756 28.3639  255 255 255
9.63931 -3.84286 34.7963  255 255 255
-26.9176 -15.7421 27.0386  255 255 255
8.12696 -6.11448 36.6803  255 255 255
1.73887 -8.05076 39.4834  255 255 255
14.8149 -5.22154 31.9413  255 255 255
15.4667 -5.26645 31.2879  255 255 255
-54.3201 -30.0757 -1.51311  255 255 255
-52.2019 -29.8731 -1.44272  255 255 255
-12.766 -16.0683 37.7694  255 255 255
60.2715 0.585182 -7.42999  255 255 255
2.56263 -11.7456 40.3022  255 255 255
-4.29695 -14.0481 40.5858  255 255 255
-7.0199 -16.1541 40.1784  255 255 255
61.28 -1.8483 -6.94943  255 255 255
-101.03 -48.7687 22.1692  255 255 255
-6.29244 -17.6505 40.2571  255 255 255
-1.01511 -15.8874 40.9056  255 255 255
-9.52372 -18.9882 39.0862  255 255 255
-6.4394 -18.4521 39.941  255 255 255
16.3608 -12.5424 32.8615  255 255 255
7.05354 -14.914 39.3151  255 255 255
17.8221 -13.6237 30.9526  255 255 255
17.8221 -13.6237 30.9525  255 255 255
-7.51218 -21.1858 39.1047  255 255 255
-3.79104 -19.9151 39.9836  255 255 255
19.826 -14.9973 30.2022  255 255 255
-47.3864 -40.285 11.639  255 255 255
-12.7113 -24.3831 39.8536  255 255 255
-27.5875 -31.4456 27.9083  255 255 255
23.8573 -16.0672 26.7938  255 255 255
-2.66879 -22.7015 40.5517  255 255 255
14.9266 -18.4901 34.9123  255 255 255
-13.352 -28.1981 41.5434  255 255 255
-72.5821 -51.8074 27.3742  255 255 255
17.0449 -20.8482 35.6245  255 255 255
-92.0168 -57.8873 33.432  255 255 255
64.8754 -15.1181 -1.23018  255 255 255
-71.1552 -53.1475 27.9324  255 255 255
64.6148 -18.9627 -9.96844  255 255 255
17.6892 -24.1942 37.1048  255 255 255
-46.5877 -48.8039 22.8101  255 255 255
65.9177 -22.0524 -9.36446  255 255 255
67.2328 -22.29 -5.75533  255 255 255
-60.167 -55.4044 28.5  255 255 255
13.9194 -27.3072 40.9851  255 255 255
68.4037 -21.6053 -2.12471  255 255 255
68.2392 -23.0148 -3.63397  255 255 255
-42.5638 -51.3127 25.9953  255 255 255
12.2131 -28.7027 41.9503  255 255 255
-59.6516 -55.9597 31.2015  255 255 255
-43.5119 -52.2669 27.0189  255 255 255
-61.1871 -57.463 32.6755  255 255 255
12.1038 -31.4345 40.5218  255 255 255
12.1038 -31.4345 40.5219  255 255 255
12.992 -33.156 38.2855  255 255 255
-59.0081 -59.1653 33.6812  255 255 255
-59.0081 -59.1654 33.6811  255 255 255
-49.4173 -56.4048 32.0096  255 255 255
60.5105 -29.7492 -0.284111  255 255 255
60.1899 -30.7831 1.80058  255 255 255
-2.69571 -40.0934 37.7175  255 255 255
-2.41656 -40.9417 36.8018  255 255 255
14.8434 -37.8063 34.2634  255 255 255
-81.2063 -68.7818 47.4478  255 255 255
50.5218 -40.0424 13.884  255 255 255
-34.6584 -60.5126 37.7523  255 255 255
59.805 -38.9115 12.0781  255 255 255
3.84375 -48.5331 38.0057  255 255 255
62.6367 -39.0372 12.9898  255 255 255
-73.051 -74.2527 54.3835  255 255 255
65.9481 -41.3693 14.4064  255 255 255
-64.6907 -74.2713 55.1534  255 255 255
5.62665 -60.7048 38.5352  255 255 255
58.184 98.0148 -95.0885  255 255 255
41.2918 91.9503 -89.1235  255 255 255
41.2282 91.882 -88.9362  255 255 255
28.706 86.0615 -84.9494  255 255 255
37.7902 89.3085 -88.4618  255 255 255
37.8519 89.3645 -88.6714  255 255 255
40.5788 90.1563 -89.3223  255 255 255
-72.4204 49.2027 -45.7601  255 255 255
20.022 82.2697 -81.9325  255 255 255
20.063 82.2831 -82.0885  255 255 255
21.6915 82.6077 -82.8926  255 255 255
24.3486 83.4656 -84.0215  255 255 255
27.9324 84.7366 -85.5341  255 255 255
36.4968 87.447 -89.1722  255 255 255
34.89 85.654 -89.0085  255 255 255
69.5893 97.3947 -102.166  255 255 255
69.3939 97.2313 -101.818  255 255 255
53.8094 89.3208 -98.2316  255 255 255
53.8919 87.8482 -99.1879  255 255 255
71.4114 92.6199 -106.992  255 255 255
-138.454 9.01228 17.4422  255 255 255
-76.0802 39.2983 -50.944  255 255 255
-85.3278 34.6923 -48.323  255 255 255
-26.7006 53.325 -71.7068  255 255 255
51.5429 79.2373 -110.41  255 255 255
-81.167 28.112 -60.695  255 255 255
-26.2332 44.7868 -79.9465  255 255 255
38.1576 66.616 -105.156  255 255 255
38.1576 66.616 -105.156  255 255 255
41.3308 66.5545 -107.183  255 255 255
14.7955 56.2038 -97.9304  255 255 255
-158.886 3.71947 -49.0882  255 255 255
19.2185 57.2432 -100.832  255 255 255
19.1704 57.2225 -100.513  255 255 255
39.0548 63.2849 -107.993  255 255 255
40.9086 63.8267 -109.22  255 255 255
40.8401 63.7773 -108.987  255 255 255
-156.155 2.55471 -46.0598  255 255 255
14.6338 54.23 -99.1536  255 255 255
-159.883 -0.300371 -42.7182  255 255 255
13.3538 52.5045 -99.5399  255 255 255
13.3266 52.5033 -99.4776  255 255 255
36.8207 59.6179 -108.987  255 255 255
-17.5071 29.2589 -75.9549  255 255 255
-105.347 2.48962 -45.0346  255 255 255
26.2977 40.338 -89.5809  255 255 255
24.0737 39.3195 -87.3872  255 255 255
24.021 39.288 -87.328  255 255 255
-102.127 -4.31607 -36.4692  255 255 255
-74.657 3.29861 -45.1386  255 255 255
-111.391 -10.6699 -27.8117  255 255 255
-111.391 -10.6699 -27.8117  255 255 255
9.38653 25.4413 -70.7307  255 255 255
6.61048 24.4143 -70.8699  255 255 255
-104.143 -9.56652 -28.6852  255 255 255
3.51437 20.1878 -63.9721  255 255 255
5.6616 20.888 -65.3299  255 255 255
59.4405 33.0404 -40.044  255 255 255
5.99816 18.2571 -62.5129  255 255 255
5.9085 18.2097 -61.4267  255 255 255
10.2663 19.1754 -62.6441  255 255 255
5.23464 17.2576 -61.0729  255 255 255
56.7632 30.1698 -50.253  255 255 255
33.8131 23.1769 -65.0611  255 255 255
29.8214 20.5828 -63.9207  255 255 255
-50.0962 -5.92022 -32.1584  255 255 255
-11.0207 2.50573 29.7781  255 255 255
33.3312 16.9627 -57.8128  255 255 255
-89.4675 -19.4191 -16.5424  255 255 255
-51.705 -11.1491 -25.6866  255 255 255
-19.3626 -2.98176 28.0301  255 255 255
36.8858 7.0432 -46.2595  255 255 255
-6.95296 -4.53364 37.5747  255 255 255
-6.94246 -4.53247 37.3952  255 255 255
11.8007 -0.723987 31.0994  255 255 255
-3.45387 -5.29892 38.6748  255 255 255
0.406552 -4.99285 38.3642  255 255 255
-55.571 -26.4154 -6.04011  255 255 255
5.50667 -6.16867 37.6461  255 255 255
-54.3025 -28.3438 -3.9612  255 255 255
-51.8255 -30.8415 -0.528687  255 255 255
9.16536 -9.59982 37.1912  255 255 255
-56.6021 -33.6394 3.13189  255 255 255
-54.0328 -33.3589 2.10045  255 255 255
-68.892 -40.2976 10.8886  255 255 255
-100.797 -49.959 22.4484  255 255 255
-62.8844 -41.1378 11.859  255 255 255
-13.6798 -21.4965 39.2256  255 255 255
-81.5118 -46.2112 18.9062  255 255 255
62.7837 -6.92396 -6.67762  255 255 255
-4.97893 -20.36 39.9028  255 255 255
5.46957 -17.2707 39.6602  255 255 255
30.5884 -13.067 21.2837  255 255 255
-81.2619 -48.5026 21.1383  255 255 255
6.42497 -17.9438 39.2851  255 255 255
-14.0228 -25.3026 38.9555  255 255 255
26.2257 -15.2165 25.3157  255 255 255
-4.84289 -23.4177 41.5933  255 255 255
2.55498 -21.8075 39.4741  255 255 255
14.7923 -19.1978 35.7575  255 255 255
-77.9001 -52.2274 26.8185  255 255 255
-68.2635 -53.1986 27.4223  255 255 255
10.5355 -25.1028 38.9831  255 255 255
1.6635 -27.9055 41.3875  255 255 255
-9.99215 -31.2403 43.4081  255 255 255
-2.68187 -29.8438 44.0358  255 255 255
67.1534 -23.8443 -7.24733  255 255 255
-87.3052 -62.7987 39.674  255 255 255
68.0412 -23.3439 -4.71678  255 255 255
67.8501 -23.3379 -4.50955  255 255 255
-61.1529 -56.5841 30.2854  255 255 255
-41.683 -51.286 25.822  255 255 255
67.6985 -24.562 -6.35194  255 255 255
-40.9896 -51.7806 25.3204  255 255 255
-51.2541 -54.6046 29.7929  255 255 255
-39.5662 -51.7398 26.6126  255 255 255
69.4591 -27.1108 -3.24019  255 255 255
13.1626 -33.6576 38.0229  255 255 255
25.5749 -34.2976 25.3632  255 255 255
-80.0765 -65.4669 43.1542  255 255 255
-84.2304 -66.4803 45.1163  255 255 255
-81.8528 -65.9546 43.8145  255 255 255
-77.032 -65.2972 43.2152  255 255 255
24.8999 -35.8432 24.9702  255 255 255
8.93306 -41.1851 34.5809  255 255 255
-78.112 -69.8222 48.7894  255 255 255
-49.5556 -62.6736 41.0036  255 255 255
-34.7606 -58.9907 35.6357  255 255 255
-77.7846 -72.8281 52.5924  255 255 255
-30.8052 -61.2949 38.7134  255 255 255
-41.6686 -65.7488 44.1636  255 255 255
61.7078 -42.1015 16.6202  255 255 255
-36.3171 -65.2805 43.6763  255 255 255
39.4903 -48.7897 23.1637  255 255 255
-5.82801 -62.1251 40.4513  255 255 255
-8.47795 75.0103 -61.0848  255 255 255
56.0069 97.5667 -93.6727  255 255 255
66.0214 100.277 -97.7736  255 255 255
29.6607 87.8317 -85.6193  255 255 255
19.8899 83.3214 -81.4578  255 255 255
19.9061 83.3285 -81.5391  255 255 255
19.838 83.2693 -81.3129  255 255 255
32.3423 86.2012 -86.7411  255 255 255
29.8098 85.5468 -87.0343  255 255 255
32.334 83.5326 -88.7486  255 255 255
32.1776 83.4105 -88.2454  255 255 255
-78.3688 42.4204 -48.9449  255 255 255
31.8187 79.8908 -89.7966  255 255 255
-5.036 63.2994 -79.7622  255 255 255
-137.354 7.78553 17.2159  255 255 255
-58.4066 41.1843 -61.5058  255 255 255
41.012 70.7002 -103.978  255 255 255
12.1968 50.8073 -99.9782  255 255 255
14.3782 51.4978 -100.543  255 255 255
55.0897 64.9545 -116.391  255 255 255
-150.112 -4.01402 -38.0248  255 255 255
-151.131 -4.54248 -36.3966  255 255 255
-31.306 31.1095 -78.4811  255 255 255
18.9287 39.4146 -87.9663  255 255 255
24.2094 40.9576 -89.473  255 255 255
13.6594 35.9821 -83.9867  255 255 255
-56.8779 13.449 -58.1672  255 255 255
24.21 37.9098 -86.0237  255 255 255
26.37 38.5339 -86.1643  255 255 255
26.5422 38.6056 -86.5168  255 255 255
-55.8765 11.9162 -54.5384  255 255 255
-72.6312 4.08761 -46.2057  255 255 255
9.94377 29.1182 -74.9625  255 255 255
11.3764 27.5622 -72.8186  255 255 255
-96.4213 -12.0775 -24.9759  255 255 255
29.6234 21.564 -61.4239  255 255 255
-57.1195 -5.72944 -31.3837  255 255 255
-22.8913 0.528626 10.5475  255 255 255
-28.1721 -1.35599 6.65117  255 255 255
36.5151 14.2673 -54.781  255 255 255
-12.5558 -4.96523 35.4017  255 255 255
-9.8109 -4.14158 36.4099  255 255 255
-13.348 -7.19036 36.0155  255 255 255
6.73011 -2.00317 35.0906  255 255 255
-11.6744 -9.38326 37.8387  255 255 255
-11.6972 -9.42828 37.6257  255 255 255
2.06948 -5.93202 38.4956  255 255 255
-61.4656 -30.776 -5.45465  255 255 255
-5.59613 -11.4511 40.2074  255 255 255
11.9034 -7.53401 35.3251  255 255 255
-10.0878 -16.1369 39.1652  255 255 255
1.35273 -12.5228 40.6181  255 255 255
-9.16606 -19.661 38.5563  255 255 255
6.77109 -15.0447 39.2202  255 255 255
-84.5304 -46.8628 19.3462  255 255 255
-80.8852 -47.4704 19.9112  255 255 255
-69.9686 -46.0922 18.7547  255 255 255
-76.7632 -47.9682 21.4813  255 255 255
0.0319201 -21.2521 39.6284  255 255 255
0.235136 -22.1216 40.0338  255 255 255
16.1678 -18.6757 35.4343  255 255 255
15.4312 -19.9719 36.8839  255 255 255
-76.9863 -52.7502 26.1378  255 255 255
-76.7199 -54.1366 30.2806  255 255 255
15.8278 -22.4408 36.8067  255 255 255
-49.734 -48.767 22.2224  255 255 255
-49.6935 -48.6949 22.4838  255 255 255
-47.394 -48.0777 21.7597  255 255 255
-72.2124 -54.9566 30.9171  255 255 255
-63.8324 -52.8863 28.2152  255 255 255
-49.9162 -49.5169 23.3591  255 255 255
1.07233 -28.441 42.2301  255 255 255
-64.2513 -53.7423 29.3894  255 255 255
-1.78212 -30.3752 44.7396  255 255 255
-82.6892 -61.1369 37.4607  255 255 255
-59.4204 -56.1695 31.4556  255 255 255
-61.1263 -56.8666 33.1979  255 255 255
-61.0848 -56.8556 33.3996  255 255 255
-41.4424 -52.4538 25.4141  255 255 255
-41.1231 -51.7467 27.103  255 255 255
-40.2529 -52.2762 26.9051  255 255 255
1.35264 -34.4181 42.3967  255 255 255
-41.1892 -53.5265 28.2056  255 255 255
59.4086 -29.4716 -0.290424  255 255 255
-51.6414 -57.0563 31.4543  255 255 255
-50.9919 -57.6383 31.3784  255 255 255
-18.0764 -47.3856 33.8624  255 255 255
61.9373 -32.5158 4.24244  255 255 255
20.7132 -38.1747 29.1902  255 255 255
52.8209 -46.1819 20.1909  255 255 255
35.3232 88.4357 -87.3421  255 255 255
48.2538 82.6439 -100.991  255 255 255
-44.1488 46.6305 -65.2865  255 255 255
40.4367 67.7891 -105.629  255 255 255
60.1097 72.2614 -114.267  255 255 255
-116.185 -12.8713 -24.5892  255 255 255
4.74932 6.44472 22.1957  255 255 255
-12.6502 0.277354 30.7897  255 255 255
47.4717 14.719 -56.9981  255 255 255
57.4772 14.5961 -4.97573  255 255 255
-11.1971 -5.81675 36.5695  255 255 255
-13.6454 -15.9221 37.7491  255 255 255
60.9896 1.03094 -4.62473  255 255 255
3.58947 -12.2352 39.9674  255 255 255
-86.7057 -45.3448 18.5829  255 255 255
-12.9952 -20.2954 37.7925  255 255 255
-13.0213 -20.2585 37.9466  255 255 255
-79.5395 -48.0513 19.0006  255 255 255
-43.8141 -39.0779 12.4322  255 255 255
-19.309 -27.0001 40.2936  255 255 255
-81.3395 -50.8014 25.1845  255 255 255
17.056 -19.0956 35.2445  255 255 255
2.61494 -23.5777 41.5717  255 255 255
-80.9053 -53.738 28.7728  255 255 255
-48.3997 -48.7846 22.2241  255 255 255
-1.20169 -29.5743 43.638  255 255 255
-58.6875 -54.6907 29.254  255 255 255
-52.2882 -53.4152 25.2423  255 255 255
-51.9355 -53.9702 28.6143  255 255 255
-43.7102 -53.1066 27.6511  255 255 255
-43.6014 -53.0425 28.0901  255 255 255
0.260454 -34.3413 42.1603  255 255 255
61.6671 -30.2888 0.318153  255 255 255
-36.573 -53.905 28.8634  255 255 255
-0.0933943 -39.0611 38.4626  255 255 255
45.5286 -36.6043 8.96771  255 255 255
-51.9363 -66.6982 46.3039  255 255 255
61.6471 -40.347 12.9431  255 255 255
61.005 -42.7571 17.6986  255 255 255
49.6795 -51.6443 30.2801  255 255 255
55.6585 71.841 -111.903  255 255 255
-80.2521 6.35413 -50.4908  255 255 255
35.8692 22.2269 -66.7922  255 255 255
-14.2191 -14.0539 37.0508  255 255 255
1.18317 -10.3367 39.8851  255 255 255
-2.65258 -15.9398 41.2443  255 255 255
-2.61217 -15.9915 40.8069  255 255 255
-80.2915 -46.87 18.2211  255 255 255
-78.0673 -51.6563 25.2433  255 255 255
-26.4488 -35.2969 26.0836  255 255 255
-70.595 -51.3571 26.5311  255 255 255
3.13462 -24.5867 41.8162  255 255 255
-88.7045 -58.4855 33.6772  255 255 255
-4.94886 -30.4135 45.0135  255 255 255
-64.9586 -54.927 29.61  255 255 255
-25.8073 -42.1071 27.5238  255 255 255
4.62147 -30.2219 44.6829  255 255 255
18.7285 -35.3799 33.21  255 255 255
16.7339 -41.8896 31.1483  255 255 255
61.4739 -41.5896 16.1961  255 255 255
25.2711 76.223 -89.0309  255 255 255
-16.1399 53.5565 -85.4354  255 255 255
16.7406 56.2042 -98.7124  255 255 255
16.7265 56.2088 -98.6348  255 255 255
55.9279 68.0561 -114.51  255 255 255
-10.7438 -14.7207 38.9939  255 255 255
-82.0821 -52.8887 23.8421  255 255 255
6.43937 -27.3063 41.3562  255 255 255
15.3141 -28.4884 40.3187  255 255 255
-81.358 -65.7406 43.4132  255 255 255
-81.3298 -67.4966 46.7232  255 255 255
-52.7556 -65.3551 43.9986  255 255 255
-52.7556 -65.3551 43.9986  255 255 255
63.3281 -40.5806 12.4335  255 255 255
15.0265 67.387 -87.8791  255 255 255
-81.9818 -62.0929 39.2142  255 255 255
-79.3299 -68.3609 46.6895  255 255 255
-9.22273 -47.1863 33.8989  255 255 255
47.0246 81.7037 -101.251  255 255 255
-63.6466 36.4017 -60.6838  255 255 255
53.6459 82.8965 -102.001  255 255 255
-1.86908 -22.4456 40.1559  255 255 255
4.23903 -25.6969 39.8162  255 255 255
23.6579 61.8392 -100.71  255 255 255
13.1705 -23.2503 37.9974  255 255 255
-49.5071 58.566 -55.1238  255 255 255
-49.1635 39.6047 -67.796  255 255 255
-22.1775 107.308 -47.3944  255 255 255
31.0181 116.416 -62.9355  255 255 255
30.9076 116.316 -63.7832  255 255 255
61.3834 122.998 -75.2942  255 255 255
40.3418 116.666 -67.8123  255 255 255
-0.325517 105.031 -51.3973  255 255 255
-6.58009 104.027 -49.7475  255 255 255
39.9182 116.253 -69.0987  255 255 255
64.5407 122.44 -78.9053  255 255 255
39.878 115.57 -70.613  255 255 255
-1.64157 103.155 -51.9472  255 255 255
40.7331 113.732 -71.1004  255 255 255
13.166 105.166 -60.0427  255 255 255
-15.231 97.2392 -47.8759  255 255 255
37.1933 111.495 -70.927  255 255 255
37.1933 111.495 -70.927  255 255 255
-22.8448 95.2132 -44.6155  255 255 255
17.3395 106.486 -62.9671  255 255 255
15.323 105.533 -61.6276  255 255 255
13.1658 104.903 -60.7799  255 255 255
13.0796 104.819 -60.6373  255 255 255
60.043 68.9406 -9.16732  255 255 255
-21.8431 95.1432 -45.1235  255 255 255
79.482 122.269 -88.4499  255 255 255
-12.189 97.5895 -49.586  255 255 255
-9.97222 98.0415 -50.4692  255 255 255
-10.8668 97.6419 -50.251  255 255 255
58.0604 71.5471 -14.2155  255 255 255
5.56323 101.876 -57.7695  255 255 255
-46.8837 84.8919 -29.7639  255 255 255
-31.2695 92.0029 -41.3535  255 255 255
-3.28935 99.5289 -54.0168  255 255 255
-14.5646 96.1661 -48.6093  255 255 255
24.7776 106.999 -66.459  255 255 255
27.1795 107.673 -67.6423  255 255 255
64.3877 63.1969 -2.05669  255 255 255
14.2362 104.021 -61.6674  255 255 255
3.51301 100.844 -57.0916  255 255 255
2.51507 100.485 -56.6364  255 255 255
60.4009 68.6761 -11.1371  255 255 255
60.5824 68.0711 -10.2598  255 255 255
-53.9663 85.6025 -31.2157  255 255 255
62.7762 64.3335 -4.74175  255 255 255
-46.9935 85.7749 -32.2295  255 255 255
20.3655 105.152 -64.8971  255 255 255
57.396 71.8667 -16.6361  255 255 255
24.4914 106.423 -67.2544  255 255 255
24.8719 106.012 -66.6346  255 255 255
26.2533 106.712 -67.9804  255 255 255
-9.03215 97.0059 -52.053  255 255 255
22.4639 105.534 -66.3162  255 255 255
58.6839 69.6621 -13.8853  255 255 255
62.1594 65.8053 -7.91188  255 255 255
17.1506 103.956 -63.9205  255 255 255
58.427 68.7152 -12.6612  255 255 255
-16.746 94.8478 -48.8241  255 255 255
-13.8817 95.5133 -50.1848  255 255 255
-56.6484 84.2163 -30.3558  255 255 255
59.3829 68.9717 -13.415  255 255 255
-14.7301 95.0996 -49.8582  255 255 255
1.39542 99.3379 -56.9323  255 255 255
2.41893 99.7683 -57.718  255 255 255
52.9609 113.243 -79.9856  255 255 255
23.5067 105.145 -67.1122  255 255 255
23.5067 105.145 -67.1124  255 255 255
-47.6319 86.3674 -34.9742  255 255 255
27.032 106.093 -68.9421  255 255 255
66.9476 59.2298 0.800253  255 255 255
-40.176 88.3426 -38.6281  255 255 255
3.37754 99.4418 -58.0106  255 255 255
5.20298 100.017 -58.9797  255 255 255
26.4694 105.727 -69.093  255 255 255
26.4358 105.671 -68.9858  255 255 255
58.5082 41.7251 27.3176  255 255 255
-8.47453 96.1755 -53.1809  255 255 255
89.9944 121.758 -95.7214  255 255 255
64.9166 115.14 -85.4413  255 255 255
58.9045 68.3677 -14.2717  255 255 255
61.5755 40.6154 27.7812  255 255 255
64.5655 114.267 -85.3953  255 255 255
57.2591 70.3028 -18.5516  255 255 255
62.6076 38.5495 30.6075  255 255 255
6.20628 99.0101 -60.3431  255 255 255
6.15696 98.9721 -60.2623  255 255 255
6.25152 99.0768 -60.4632  255 255 255
56.2397 47.2261 16.8173  255 255 255
-0.0829016 97.3352 -57.7098  255 255 255
21.3815 103.067 -67.5304  255 255 255
1.70437 97.6653 -58.5133  255 255 255
-0.855989 96.9595 -57.5952  255 255 255
29.0982 104.569 -71.1909  255 255 255
58.5577 43.6475 21.5127  255 255 255
58.634 43.723 21.4846  255 255 255
59.2121 43.1259 22.2178  255 255 255
60.5285 39.9814 27.2576  255 255 255
57.8749 44.7223 19.4913  255 255 255
-14.3378 92.8823 -51.811  255 255 255
24.6783 102.911 -69.7437  255 255 255
57.6671 68.288 -17.7344  255 255 255
62.5079 41.0627 24.1042  255 255 255
58.5567 67.0348 -16.9223  255 255 255
-0.907621 95.6299 -58.149  255 255 255
57.8664 67.259 -17.812  255 255 255
65.1466 37.4899 29.1321  255 255 255
24.0996 101.135 -68.8403  255 255 255
57.3369 44.6953 17.5187  255 255 255
60.0271 41.6896 22.3588  255 255 255
59.3388 110.561 -85.5979  255 255 255
40.1721 105.89 -77.5634  255 255 255
39.4202 105.386 -77.3289  255 255 255
-12.2484 92.1365 -53.6341  255 255 255
-15.8649 90.9608 -51.9048  255 255 255
-0.0814028 95.0914 -59.622  255 255 255
16.4097 98.8051 -67.1804  255 255 255
-10.3113 91.773 -55.1448  255 255 255
56.4879 45.1162 14.3711  255 255 255
-26.2485 87.6974 -47.6954  255 255 255
61.6253 61.7409 -12.2851  255 255 255
80.9466 113.642 -96.0983  255 255 255
61.9279 60.9095 -11.7669  255 255 255
63.2564 59.8074 -9.92894  255 255 255
78.0907 112.906 -94.8761  255 255 255
61.41 61.1791 -12.2468  255 255 255
59.1925 108.451 -86.9216  255 255 255
59.2049 108.429 -86.9133  255 255 255
63.4695 38.0646 24.6547  255 255 255
80.6015 113.015 -96.268  255 255 255
26.32 99.4155 -72.2639  255 255 255
26.2625 99.3627 -72.1184  255 255 255
74.4438 111.643 -94.3305  255 255 255
74.4438 111.643 -94.3305  255 255 255
64.5262 57.193 -7.0323  255 255 255
-62.737 76.6701 -29.1134  255 255 255
79.6887 111.991 -96.3803  255 255 255
-13.2067 89.5574 -54.8259  255 255 255
57.4909 42.916 15.1231  255 255 255
80.7285 112.201 -97.1391  255 255 255
60.4205 107.009 -88.6059  255 255 255
56.5536 42.6537 14.754  255 255 255
-10.216 89.7564 -56.7892  255 255 255
64.7431 56.1386 -7.84321  255 255 255
63.9836 56.9961 -9.377  255 255 255
-8.557 89.7507 -57.8478  255 255 255
-8.557 89.7507 -57.8478  255 255 255
71.9964 108.693 -94.187  255 255 255
-57.1546 78.1124 -34.7188  255 255 255
52.887 104.186 -86.3862  255 255 255
63.6895 56.2913 -9.73603  255 255 255
73.183 108.638 -95.5444  255 255 255
-1.31201 90.7703 -61.6596  255 255 255
54.0573 103.828 -87.2996  255 255 255
75.237 108.64 -96.3215  255 255 255
75.2873 108.729 -96.4517  255 255 255
-64.6662 75.884 -31.6043  255 255 255
57.177 40.9508 14.427  255 255 255
-7.74684 88.745 -59.0478  255 255 255
46.0468 101.435 -84.3203  255 255 255
98.9814 113.76 -108.227  255 255 255
67.3872 51.2637 -3.87546  255 255 255
56.9907 40.7496 13.9823  255 255 255
-55.3426 77.6242 -36.9218  255 255 255
60.5185 59.0948 -17.2209  255 255 255
-31.2109 82.7741 -48.3515  255 255 255
47.3447 100.868 -85.2206  255 255 255
49.205 101.172 -85.9058  255 255 255
62.4813 56.9234 -14.3872  255 255 255
66.8953 51.4257 -5.35477  255 255 255
-17.8707 85.625 -55.1004  255 255 255
48.2241 100.828 -85.673  255 255 255
-2.59698 89.0838 -62.6008  255 255 255
58.4781 38.2577 16.2293  255 255 255
110.268 114.64 -113.805  255 255 255
-36.3584 80.8424 -46.3376  255 255 255
56.9766 39.6749 13.6523  255 255 255
15.1614 92.6403 -71.399  255 255 255
64.0768 53.8304 -11.0185  255 255 255
63.8027 32.0427 25.8251  255 255 255
-2.02502 88.0822 -62.9833  255 255 255
59.7697 58.5471 -19.1588  255 255 255
65.6993 29.7861 29.0027  255 255 255
55.0507 100.54 -89.7123  255 255 255
12.1519 91.101 -70.622  255 255 255
-32.2634 81.0219 -49.2217  255 255 255
-18.242 83.9423 -55.7268  255 255 255
-18.2726 83.9089 -55.6508  255 255 255
-2.877 87.4293 -63.3161  255 255 255
-2.877 87.4293 -63.3161  255 255 255
-2.89897 87.4241 -63.2664  255 255 255
-4.50676 86.4108 -61.6602  255 255 255
-62.4646 73.8465 -34.1956  255 255 255
-62.4646 73.8465 -34.1956  255 255 255
-19.7782 83.4999 -55.2774  255 255 255
118.293 114.743 -119.18  255 255 255
-19.3527 83.2334 -55.2734  255 255 255
-19.3527 83.2334 -55.2734  255 255 255
62.0156 33.1536 21.5908  255 255 255
66.117 28.3014 29.576  255 255 255
-37.6241 79.0676 -47.0897  255 255 255
-37.641 78.9917 -46.921  255 255 255
-14.8396 83.9346 -57.9708  255 255 255
-1.63849 87.0386 -64.5001  255 255 255
69.6661 103.157 -97.776  255 255 255
-22.0088 82.3575 -54.5621  255 255 255
41.4376 96.6918 -84.9372  255 255 255
69.9253 102.678 -97.3633  255 255 255
-63.2424 73.1369 -34.6441  255 255 255
84.2593 105.754 -104.385  255 255 255
36.5089 95.3292 -83.2092  255 255 255
40.6504 96.1084 -84.928  255 255 255
40.664 96.1529 -85.0242  255 255 255
65.8334 28.5207 27.9331  255 255 255
-18.702 82.9121 -56.8469  255 255 255
39.5827 95.6632 -84.4923  255 255 255
-18.6357 82.3614 -56.7738  255 255 255
-18.6602 82.338 -56.6952  255 255 255
40.0319 95.2363 -84.616  255 255 255
62.2588 53.6738 -15.8894  255 255 255
61.2283 54.5239 -17.8504  255 255 255
-41.9144 77.0759 -45.5494  255 255 255
-16.9339 82.666 -58.0297  255 255 255
-8.47357 84.1805 -62.2261  255 255 255
44.2977 95.8245 -87.479  255 255 255
44.2977 95.8244 -87.479  255 255 255
40.6161 95.2915 -86.3799  255 255 255
56.7797 37.4259 10.9571  255 255 255
-24.0352 80.4137 -54.7477  255 255 255
54.378 96.8953 -92.1234  255 255 255
40.0063 93.8831 -85.9896  255 255 255
58.3666 57.0305 -25.2156  255 255 255
65.8795 47.3274 -8.86947  255 255 255
-46.1303 74.9152 -44.4328  255 255 255
60.703 31.8583 18.5565  255 255 255
61.5712 51.9153 -17.4182  255 255 255
-50.77 73.6145 -42.3372  255 255 255
38.8946 92.6324 -85.9841  255 255 255
-19.053 80.0682 -58.0444  255 255 255
66.8831 46.2898 -8.76905  255 255 255
56.7648 35.8812 10.117  255 255 255
62.558 29.7764 20.4546  255 255 255
63.0532 29.1962 21.3763  255 255 255
63.0532 29.1962 21.3763  255 255 255
-53.1394 72.6013 -41.3416  255 255 255
-53.1394 72.6013 -41.3415  255 255 255
-53.0798 70.8598 -38.4429  255 255 255
-21.3581 78.999 -57.502  255 255 255
30.3788 89.9253 -82.6149  255 255 255
60.6218 31.098 17.0276  255 255 255
59.2898 32.5713 14.0598  255 255 255
66.624 24.6335 27.393  255 255 255
18.433 86.7332 -77.4684  255 255 255
-2.18275 82.4518 -67.7204  255 255 255
57.2708 94.6667 -96.0578  255 255 255
-62.5095 69.7913 -37.5614  255 255 255
-64.0273 69.2819 -36.6659  255 255 255
-52.7364 71.4253 -42.2364  255 255 255
61.891 29.1515 18.6721  255 255 255
-55.8212 71.1612 -41.4694  255 255 255
-54.3112 69.2731 -38.5025  255 255 255
-54.3112 69.273 -38.5024  255 255 255
58.2969 54.9608 -27.4938  255 255 255
-0.586351 82.2136 -68.8477  255 255 255
55.1255 93.6146 -95.4491  255 255 255
55.1256 93.6146 -95.4491  255 255 255
85.1689 99.599 -109.319  255 255 255
-0.711005 81.6223 -69.0081  255 255 255
60.8771 29.7784 15.8777  255 255 255
-27.6377 75.8331 -55.6905  255 255 255
-30.4634 75.3149 -54.5601  255 255 255
-49.2159 71.4681 -45.0827  255 255 255
-47.4265 71.7606 -45.8321  255 255 255
-14.6445 78.2962 -62.3437  255 255 255
-72.8006 66.4596 -33.1869  255 255 255
60.0214 30.3489 13.9546  255 255 255
-18.4456 77.3123 -60.6792  255 255 255
39.8019 89.2194 -89.5357  255 255 255
-16.4263 77.5034 -61.4894  255 255 255
59.6982 51.3701 -24.7839  255 255 255
-65.9537 67.4444 -36.9674  255 255 255
-78.8778 64.9095 -30.9286  255 255 255
-56.7538 69.2113 -42.0716  255 255 255
85.9649 97.4655 -111.374  255 255 255
94.4982 99.1757 -115.642  255 255 255
-63.1276 67.5544 -38.3235  255 255 255
-13.7444 77.4556 -63.749  255 255 255
1.24041 80.4581 -71.2905  255 255 255
4.48233 81.571 -73.7042  255 255 255
59.263 30.3413 12.1113  255 255 255
85.2419 96.986 -111.373  255 255 255
-23.6688 75.1163 -58.4121  255 255 255
86.646 97.0271 -112.097  255 255 255
60.1785 28.4829 14.8777  255 255 255
0.0629893 79.7647 -70.8348  255 255 255
-26.4016 74.3027 -57.2632  255 255 255
-24.7014 74.6823 -58.4757  255 255 255
-25.9628 74.5671 -57.9567  255 255 255
-77.564 64.551 -32.0166  255 255 255
-74.4949 61.254 -26.83  255 255 255
25.066 84.2043 -83.5935  255 255 255
80.6144 94.7196 -109.488  255 255 255
54.5375 89.6689 -98.0458  255 255 255
-7.39041 77.6679 -67.8533  255 255 255
3.87301 79.7354 -73.292  255 255 255
84.5781 95.2836 -111.721  255 255 255
66.7108 21.7818 25.0491  255 255 255
-11.8303 76.5399 -65.4194  255 255 255
2.35645 79.3639 -72.669  255 255 255
2.22734 79.2037 -72.3097  255 255 255
100.792 98.7228 -120.218  255 255 255
-14.0751 76.0551 -64.3661  255 255 255
-15.8434 75.4231 -63.1703  255 255 255
85.5481 95.2589 -112.642  255 255 255
-0.124247 78.3252 -71.1329  255 255 255
0.0402073 78.5577 -71.5695  255 255 255
59.3723 28.6414 12.2718  255 255 255
-25.9939 73.449 -58.6422  255 255 255
25.9635 83.9156 -85.1324  255 255 255
73.8751 92.1303 -107.326  255 255 255
60.2734 48.3869 -25.6956  255 255 255
-15.454 74.9488 -64.243  255 255 255
4.87026 78.6908 -74.7367  255 255 255
-15.7291 74.6697 -64.5612  255 255 255
0.199637 77.2795 -72.3428  255 255 255
-47.028 68.2661 -48.3668  255 255 255
78.2756 92.2137 -111.025  255 255 255
63.7377 23.3392 19.0907  255 255 255
58.4062 49.7753 -30.4648  255 255 255
-15.0723 73.9223 -65.1834  255 255 255
100.297 95.6858 -121.741  255 255 255
65.8821 40.6437 -14.7358  255 255 255
66.5246 40.1351 -13.9865  255 255 255
60.8442 46.8062 -26.1082  255 255 255
66.8975 18.938 25.8436  255 255 255
67.3232 19.1859 25.4592  255 255 255
-15.8806 73.4511 -64.8025  255 255 255
-15.8806 73.4511 -64.8025  255 255 255
0.391553 76.5419 -73.2349  255 255 255
43.897 84.6863 -95.2289  255 255 255
64.8769 18.2019 26.8783  255 255 255
67.0726 19.1336 25.0196  255 255 255
40.1177 83.9202 -93.4186  255 255 255
67.8662 18.5101 25.7493  255 255 255
38.9974 83.8958 -93.5494  255 255 255
26.632 81.0023 -86.7939  255 255 255
58.8191 27.412 8.62756  255 255 255
68.8225 16.6412 28.275  255 255 255
53.7019 85.6458 -100.747  255 255 255
67.2396 88.1258 -107.681  255 255 255
88.2118 91.7537 -117.341  255 255 255
-53.4414 65.2807 -45.879  255 255 255
57.3848 28.5225 5.77828  255 255 255
54.4911 85.1493 -101.756  255 255 255
-64.3968 60.9933 -36.7456  255 255 255
60.7026 24.8819 11.4631  255 255 255
-13.3304 72.2642 -67.6175  255 255 255
49.1991 83.192 -99.1479  255 255 255
59.1458 25.6933 8.94573  255 255 255
59.1202 25.6744 8.94614  255 255 255
58.8061 46.2031 -31.0168  255 255 255
-69.3741 61.9051 -39.3374  255 255 255
18.3345 77.3178 -84.6091  255 255 255
60.8039 44.2748 -27.8738  255 255 255
58.4425 26.8781 6.00182  255 255 255
35.869 80.3678 -93.632  255 255 255
61.658 23.067 12.7533  255 255 255
-54.8526 63.9789 -46.6989  255 255 255
34.691 80.9733 -95.1863  255 255 255
66.6317 17.7649 21.9167  255 255 255
-54.1227 63.997 -47.4966  255 255 255
59.0263 25.0623 8.0172  255 255 255
-27.5419 68.358 -61.372  255 255 255
67.0843 36.4069 -15.3231  255 255 255
-38.5883 66.2121 -55.3752  255 255 255
-6.99355 71.6264 -72.1545  255 255 255
61.1579 42.4376 -27.1279  255 255 255
58.5312 25.0443 7.02629  255 255 255
67.3271 35.9929 -15.6722  255 255 255
31.236 77.7935 -91.2205  255 255 255
47.7348 81.1142 -100.378  255 255 255
56.0599 27.6619 1.93559  255 255 255
61.1389 22.1841 11.7046  255 255 255
-3.40013 71.4429 -74.2404  255 255 255
66.0832 36.2296 -17.183  255 255 255
55.5749 27.1201 2.06496  255 255 255
67.3139 35.4945 -16.1049  255 255 255
65.7415 36.5096 -18.3835  255 255 255
28.9748 77.0448 -91.821  255 255 255
28.9609 77.0662 -91.844  255 255 255
59.0327 20.9496 13.2401  255 255 255
61.0667 21.8284 11.2289  255 255 255
77.6264 85.0728 -115.73  255 255 255
-37.4187 65.0963 -57.0264  255 255 255
61.9202 20.8422 12.4139  255 255 255
59.7441 42.2358 -30.2651  255 255 255
55.5204 26.9888 0.639483  255 255 255
66.5438 35.1357 -17.3189  255 255 255
63.5965 18.9499 15.2685  255 255 255
-26.7636 66.7362 -63.4304  255 255 255
61.8945 39.3256 -25.2566  255 255 255
51.777 79.6861 -103.102  255 255 255
-55.4386 61.6725 -48.3951  255 255 255
64.632 17.4645 17.3982  255 255 255
-33.0238 65.3438 -60.5236  255 255 255
22.0335 74.39 -88.6922  255 255 255
65.2135 16.9318 18.0832  255 255 255
55.7016 26.3701 0.328186  255 255 255
-2.40544 70.2005 -76.5501  255 255 255
82.6349 84.2228 -118.98  255 255 255
65.8468 34.4827 -18.0542  255 255 255
58.4134 43.2684 -34.9299  255 255 255
31.9457 75.8769 -94.9989  255 255 255
61.9191 19.7921 11.5783  255 255 255
-13.9543 67.8866 -70.9491  255 255 255
65.2302 34.7094 -19.2658  255 255 255
-55.3708 61.0734 -49.4669  255 255 255
-55.352 61.0202 -49.3118  255 255 255
65.6113 34.1567 -18.6464  255 255 255
62.1913 79.7917 -110.083  255 255 255
61.7117 19.3547 11.3539  255 255 255
61.716 19.3673 11.3201  255 255 255
-56.3409 60.411 -48.7427  255 255 255
-54.4378 60.6825 -49.7161  255 255 255
25.0777 73.7271 -91.8941  255 255 255
-15.2138 66.809 -70.373  255 255 255
-15.1907 66.8059 -70.4029  255 255 255
-25.2843 65.3364 -65.7813  255 255 255
58.4524 42.1034 -35.3762  255 255 255
61.8306 38.3596 -28.3507  255 255 255
61.9084 38.3928 -28.4238  255 255 255
62.9432 37.1324 -26.4492  255 255 255
65.6697 33.9509 -20.3395  255 255 255
65.908 33.5707 -19.815  255 255 255
-54.9193 60.0979 -49.943  255 255 255
-5.63172 67.768 -75.4346  255 255 255
55.8915 24.6933 -0.222322  255 255 255
56.0477 24.7445 -0.415746  255 255 255
60.7805 19.9456 8.53575  255 255 255
-3.282 68.1341 -77.1517  255 255 255
62.7858 36.98 -26.7827  255 255 255
15.1622 68.7699 -82.1357  255 255 255
61.4518 19.0091 10.1036  255 255 255
-27.7155 64.3239 -64.7686  255 255 255
-54.4136 59.8121 -50.1017  255 255 255
14.58 68.6125 -82.1449  255 255 255
63.8852 35.755 -25.3055  255 255 255
63.8852 35.755 -25.3055  255 255 255
58.6384 21.66 4.06388  255 255 255
64.8534 15.3141 16.1454  255 255 255
-42.7875 61.4287 -56.8119  255 255 255
-42.7875 61.4287 -56.8119  255 255 255
-44.3175 61.1263 -55.9953  255 255 255
56.2775 76.9747 -108.691  255 255 255
63.8187 35.3183 -25.6632  255 255 255
-55.2297 59.1838 -50.3607  255 255 255
-2.71421 67.1858 -78.3591  255 255 255
61.3621 18.3137 9.22656  255 255 255
-12.368 65.2721 -73.1625  255 255 255
61.8996 37.1583 -30.5465  255 255 255
60.0475 19.1512 7.07243  255 255 255
-57.3494 58.361 -49.5131  255 255 255
2.5194 67.8432 -81.8718  255 255 255
-56.6424 58.4626 -50.1349  255 255 255
-1.25122 67.0509 -79.6292  255 255 255
15.0845 66.4393 -81.8546  255 255 255
62.3589 35.9414 -29.0557  255 255 255
-7.98653 65.6202 -76.0587  255 255 255
-7.97142 65.6484 -76.1154  255 255 255
-7.95877 65.6764 -76.1758  255 255 255
-37.6571 60.9759 -60.2664  255 255 255
65.6147 13.6206 16.4719  255 255 255
66.4861 31.3186 -20.7965  255 255 255
66.3355 31.267 -20.5943  255 255 255
-7.85846 -13.8852 86.2409  255 255 255
57.5799 21.5001 1.16324  255 255 255
57.4421 21.4549 1.32035  255 255 255
62.2945 16.5815 10.6441  255 255 255
62.2932 16.5785 10.6546  255 255 255
-38.915 60.5124 -59.7168  255 255 255
64.4245 14.3299 14.4065  255 255 255
60.1916 18.5108 6.27167  255 255 255
60.1916 18.5108 6.27166  255 255 255
-72.8639 55.5242 -42.2917  255 255 255
60.5024 75.3446 -111.9  255 255 255
64.0902 32.846 -25.4731  255 255 255
57.2983 74.5458 -110.834  255 255 255
59.9582 36.7164 -33.0224  255 255 255
63.3991 14.8585 12.4218  255 255 255
64.262 13.9776 14.1629  255 255 255
60.3443 75.0604 -112.959  255 255 255
-43.8926 58.9858 -57.9277  255 255 255
-43.8449 59.0222 -58.0488  255 255 255
-0.286675 65.5792 -81.6298  255 255 255
61.2631 74.1977 -113.166  255 255 255
61.2452 74.1789 -113.094  255 255 255
61.1825 16.5106 7.33879  255 255 255
-67.6051 55.0362 -45.3401  255 255 255
-24.9226 61.2169 -68.4505  255 255 255
-21.2523 61.7804 -70.7675  255 255 255
59.8506 17.4377 4.91696  255 255 255
62.5835 14.885 9.67445  255 255 255
-14.0536 62.2814 -74.4753  255 255 255
59.6301 36.1778 -35.8604  255 255 255
-7.49827 63.0865 -78.5421  255 255 255
-24.022 60.4086 -69.4528  255 255 255
-24.0045 60.4032 -69.4948  255 255 255
-22.2147 60.6884 -70.6496  255 255 255
33.9748 68.9558 -100.728  255 255 255
-30.5291 59.5192 -66.2945  255 255 255
-16.7936 61.6028 -73.9141  255 255 255
58.3218 18.3059 1.11613  255 255 255
-18.0968 61.1455 -73.1661  255 255 255
-11.4292 62.0588 -76.5423  255 255 255
36.3286 69.1217 -102.302  255 255 255
33.3596 68.4889 -100.575  255 255 255
59.0016 17.6695 2.01308  255 255 255
40.3852 69.1601 -104.135  255 255 255
30.8151 67.9616 -99.7642  255 255 255
-41.621 57.4925 -60.6673  255 255 255
23.1207 66.5097 -95.0271  255 255 255
-62.4228 54.326 -49.0778  255 255 255
-55.9538 55.2793 -52.8528  255 255 255
-15.5688 61.0787 -75.1775  255 255 255
32.171 67.8541 -100.744  255 255 255
-13.8349 60.7833 -75.7856  255 255 255
-54.0872 54.9976 -53.8442  255 255 255
-22.3835 59.5259 -71.3366  255 255 255
75.1266 0.680855 33.5171  255 255 255
-60.6701 54.109 -50.6874  255 255 255
-19.0118 59.5183 -73.6868  255 255 255
12.0513 64.0275 -90.8689  255 255 255
73.1389 2.4132 28.7011  255 255 255
-27.0776 58.1155 -69.7535  255 255 255
-41.1883 55.7556 -61.1496  255 255 255
-63.5728 53.0115 -49.6865  255 255 255
58.3667 69.472 -114.922  255 255 255
68.2961 2.2848 29.33  255 255 255
-3.50306 61.111 -83.0718  255 255 255
57.4632 17.3635 -2.22918  255 255 255
-31.0543 57.0646 -68.0382  255 255 255
14.665 63.0816 -92.9068  255 255 255
62.6545 69.5529 -118.452  255 255 255
-25.6897 57.5613 -70.9721  255 255 255
-24.8788 57.473 -71.2095  255 255 255
-27.1395 57.1255 -70.1315  255 255 255
61.7272 12.6532 6.05137  255 255 255
-31.6311 56.3809 -67.528  255 255 255
-41.5262 54.9171 -62.1883  255 255 255
-41.5262 54.9171 -62.1883  255 255 255
61.1061 13.254 4.28192  255 255 255
58.3254 15.5238 -0.671742  255 255 255
-69.1207 51.3416 -47.6482  255 255 255
-56.8321 52.6827 -53.9857  255 255 255
-44.1911 54.3456 -61.2871  255 255 255
-31.5945 55.7796 -68.2197  255 255 255
56.1742 17.6239 -5.90528  255 255 255
-23.7419 56.7139 -72.8231  255 255 255
56.7252 16.8078 -4.36788  255 255 255
-43.9438 54.0765 -61.8149  255 255 255
0.73162 59.4063 -85.3915  255 255 255
37.9881 64.6715 -106.629  255 255 255
-24.9493 56.1753 -72.5944  255 255 255
-27.065 55.8141 -71.3514  255 255 255
-33.7018 54.8381 -67.5705  255 255 255
61.6032 11.5234 5.22801  255 255 255
-18.3625 54.0751 -70.6558  255 255 255
33.4391 63.4313 -104.785  255 255 255
70.4024 2.68768 21.7354  255 255 255
-51.1919 52.0633 -58.3089  255 255 255
-49.473 52.2277 -59.1883  255 255 255
-49.6249 51.8813 -58.3392  255 255 255
-16.9278 53.5905 -71.5203  255 255 255
-16.9278 53.5905 -71.5203  255 255 255
36.6084 63.1701 -106.736  255 255 255
59.8012 12.6198 1.10034  255 255 255
60.4162 11.991 1.96575  255 255 255
67.7412 4.94182 16.0765  255 255 255
-39.7294 53.0045 -65.1389  255 255 255
69.3598 3.20764 19.2835  255 255 255
-58.2759 50.3989 -54.2558  255 255 255
60.6501 11.4308 2.1177  255 255 255
70.425 1.04438 23.3822  255 255 255
72.7727 0.901065 23.1655  255 255 255
-8.02068 56.4182 -82.5654  255 255 255
60.4885 29.3064 -39.3152  255 255 255
60.4885 29.3064 -39.3152  255 255 255
-48.6547 51.4132 -60.5411  255 255 255
61.1919 28.724 -38.631  255 255 255
68.158 3.97106 16.6651  255 255 255
-39.5042 52.3714 -65.992  255 255 255
59.5818 11.667 0.0464056  255 255 255
70.2308 1.82584 19.984  255 255 255
51.5547 63.0915 -116.641  255 255 255
71.298 0.365933 22.5592  255 255 255
73.2942 -1.64796 26.4561  255 255 255
73.2942 -1.64796 26.4561  255 255 255
71.3007 0.376467 22.0571  255 255 255
72.5012 -0.372071 23.3587  255 255 255
-51.7841 50.2737 -59.5664  255 255 255
-33.8554 52.4237 -69.6218  255 255 255
-29.2548 52.9681 -72.2105  255 255 255
-29.2626 52.938 -72.1591  255 255 255
43.0329 61.5958 -112.028  255 255 255
60.9646 10.0222 1.85279  255 255 255
-46.2857 50.5999 -62.2631  255 255 255
-54.3342 49.61 -58.3915  255 255 255
70.6087 0.838926 19.9377  255 255 255
67.0791 3.81133 13.5679  255 255 255
-53.9463 49.4898 -58.7373  255 255 255
-65.9304 47.8607 -51.7989  255 255 255
-32.5301 51.833 -71.263  255 255 255
61.0418 9.34763 1.22703  255 255 255
61.6851 8.43477 2.69217  255 255 255
-49.1448 49.3013 -61.461  255 255 255
58.6685 11.2528 -3.49005  255 255 255
58.6685 11.2528 -3.49005  255 255 255
-66.0098 47.2032 -52.3796  255 255 255
-58.7391 47.9347 -56.3531  255 255 255
-51.134 48.8457 -61.1062  255 255 255
67.0319 2.99903 12.6912  255 255 255
36.2004 58.9096 -110.29  255 255 255
-74.364 45.831 -47.5321  255 255 255
70.6043 -0.465685 19.1992  255 255 255
60.0192 9.18608 -1.19889  255 255 255
65.3172 21.1189 -31.2511  255 255 255
60.9352 8.23645 0.633329  255 255 255
60.9352 8.23646 0.633322  255 255 255
-63.7774 46.8289 -54.1395  255 255 255
68.774 0.831115 15.6787  255 255 255
68.9437 0.462127 15.971  255 255 255
67.4272 1.96595 12.8711  255 255 255
-66.2524 46.2089 -52.8856  255 255 255
-66.2394 46.1707 -52.8459  255 255 255
66.3987 2.371 11.5419  255 255 255
62.1786 6.85998 1.74731  255 255 255
73.3789 -4.04768 24.6658  255 255 255
73.7294 -4.01971 24.417  255 255 255
65.2632 20.3137 -31.8463  255 255 255
65.276 20.3272 -31.8668  255 255 255
63.6393 4.96985 5.1844  255 255 255
-76.1641 44.8206 -48.0449  255 255 255
-72.5456 45.2912 -49.9555  255 255 255
-59.7124 46.5389 -56.9718  255 255 255
70.2164 -1.09818 17.795  255 255 255
63.8897 -3.44582 25.3653  255 255 255
-70.8653 45.2444 -50.5111  255 255 255
-38.3413 48.8664 -69.9816  255 255 255
-38.3516 48.9024 -70.0934  255 255 255
68.4242 0.279128 14.186  255 255 255
-51.0096 46.8449 -61.8614  255 255 255
74.269 -5.5649 26.5292  255 255 255
74.269 -5.5649 26.5292  255 255 255
-64.3241 45.5489 -54.836  255 255 255
-57.6006 46.0735 -58.2821  255 255 255
-30.4769 48.9875 -74.241  255 255 255
74.253 -5.81898 26.3761  255 255 255
20.915 54.3274 -103.652  255 255 255
12.509 53.4308 -98.9437  255 255 255
-30.0731 48.8169 -74.8005  255 255 255
69.8746 -1.54628 16.5094  255 255 255
-7.33759 51.0465 -88.0467  255 255 255
70.8904 -2.6135 18.4632  255 255 255
71.0352 -2.59834 18.3199  255 255 255
-56.8346 45.6245 -59.2495  255 255 255
-76.3773 43.569 -48.2919  255 255 255
-10.8862 1.77829 30.6835  255 255 255
4.82894 -2.47817 35.9748  255 255 255
71.5761 -3.48407 18.8924  255 255 255
-16.1757 48.797 -81.9382  255 255 255
-73.6929 43.5224 -50.0639  255 255 255
72.3653 -4.107 20.0761  255 255 255
76.8563 -9.08941 30.8518  255 255 255
76.8563 -9.08941 30.8518  255 255 255
-53.8011 45.0266 -60.5309  255 255 255
-50.8521 45.2297 -62.0521  255 255 255
-57.1665 44.89 -59.6544  255 255 255
-68.2402 43.7219 -53.5079  255 255 255
-4.40747 50.4477 -90.4893  255 255 255
-14.361 47.5335 -80.9193  255 255 255
-15.6252 47.6611 -81.3045  255 255 255
-69.7255 43.2162 -52.588  255 255 255
-69.7483 43.359 -52.7885  255 255 255
-28.1057 47.5683 -77.0573  255 255 255
-71.3495 42.8187 -51.6587  255 255 255
-58.0866 43.866 -59.4985  255 255 255
62.1691 3.90647 -0.00212473  255 255 255
62.1691 3.90647 -0.00212799  255 255 255
-72.6769 42.7239 -51.831  255 255 255
-64.4099 43.3192 -56.3913  255 255 255
-67.1505 42.9707 -55.0224  255 255 255
-74.3646 42.1365 -50.9455  255 255 255
-41.0368 45.17 -69.7542  255 255 255
-41.0368 45.17 -69.7543  255 255 255
73.7419 -7.6225 24.1482  255 255 255
-62.4524 42.9806 -57.8157  255 255 255
-45.1496 44.6029 -67.6618  255 255 255
66.4998 -0.664443 8.42596  255 255 255
66.5601 -0.663689 8.36662  255 255 255
-58.6078 42.8355 -58.6554  255 255 255
-54.4313 43.3539 -61.8685  255 255 255
-0.358703 -4.31396 38.1052  255 255 255
-58.9828 43.1484 -59.9401  255 255 255
2.11845 -4.78298 38.0859  255 255 255
64.0381 1.20819 3.36288  255 255 255
-60.9735 42.651 -58.6997  255 255 255
-42.0568 44.4002 -69.7768  255 255 255
-59.5381 42.8193 -59.8314  255 255 255
75.8493 -9.81208 27.1793  255 255 255
-75.1577 41.3618 -50.7227  255 255 255
-4.11155 47.9887 -91.8685  255 255 255
-4.01008 48.0554 -92.1538  255 255 255
-9.50168 -2.47006 35.475  255 255 255
-9.44955 -2.44213 35.3723  255 255 255
-10.552 -2.02308 34.5491  255 255 255
71.3295 -5.32195 16.8636  255 255 255
71.3129 -5.34661 16.8922  255 255 255
-50.0124 43.5924 -65.7694  255 255 255
-2.41635 -4.38037 37.646  255 255 255
-5.60041 -4.00288 37.5621  255 255 255
-3.29724 -4.44777 38.0125  255 255 255
-15.1083 0.58764 28.9979  255 255 255
-26.9387 45.3452 -79.2187  255 255 255
-26.9387 45.3452 -79.2187  255 255 255
-5.20896 -4.10356 37.2888  255 255 255
-5.53036 -4.26384 37.8064  255 255 255
-6.12132 -4.27385 37.607  255 255 255
-26.5888 45.0531 -79.4686  255 255 255
63.9209 0.503937 2.38308  255 255 255
-10.6739 -2.93252 35.1779  255 255 255
-10.6688 -2.93173 35.1759  255 255 255
-28.4897 44.6414 -78.6959  255 255 255
63.7399 0.410646 2.01041  255 255 255
70.9359 -6.13938 16.2568  255 255 255
63.0875 0.891373 0.768631  255 255 255
-14.2899 -1.2344 31.3912  255 255 255
-60.589 41.3699 -60.2197  255 255 255
-41.9331 42.9733 -70.9761  255 255 255
-18.1003 1.90661 24.5312  255 255 255
-42.6876 42.8605 -70.5181  255 255 255
-7.31673 -4.75065 37.6339  255 255 255
-65.9795 40.7137 -57.4472  255 255 255
-4.49918 -5.58716 38.675  255 255 255
67.4811 -3.39966 8.86675  255 255 255
-58.3536 41.1006 -61.4879  255 255 255
-5.80032 -5.44883 38.3338  255 255 255
